# .PCD v0.7 - Point Cloud Data file format
VERSION 0.7
FIELDS x y z intensity
SIZE 4 4 4 4
TYPE F F F F
COUNT 1 1 1 1
WIDTH 1334
HEIGHT 1
VIEWPOINT 0 0 0 1 0 0 0
POINTS 1334
DATA ascii
6.292563 1.3292789 -0.5626775 16
6.3563752 1.2963468 -0.56755817 16
6.3379245 1.2464383 -0.56511784 13
6.3347487 1.199818 -0.56407195 15
6.367311 1.1664554 -0.566338 12
6.3655086 1.1201295 -0.56546646 12
6.3712292 1.0752124 -0.56529212 12
6.3687649 1.0289989 -0.56442058 10
6.3915644 0.98682469 -0.56581509 10
6.4101424 0.94380128 -0.56686097 12
6.4067264 0.89752543 -0.56598938 12
6.4010019 0.85108113 -0.56494355 12
6.4265704 0.80874133 -0.56668663 12
1.5773424 0.16493309 -0.13875194 6
1.5844072 0.15446772 -0.13927488 7
1.5894183 0.14373206 -0.13962349 9
1.5844289 0.13210607 -0.13910057 10
1.5932612 0.12161849 -0.13979781 15
1.5788994 0.098311104 -0.13840333 100
1.579549 0.087256491 -0.13840333 100
1.578131 0.076101631 -0.13822901 87
1.5885785 0.065463111 -0.13910057 78
1.5850153 0.054205354 -0.13875194 75
1.5813726 0.043000694 -0.13840333 76
1.5816349 0.031930123 -0.13840333 64
1.5897886 0.020963065 -0.13910057 54
1.5859116 0.0098094754 -0.13875194 73
-1.3710997 0.79308367 -0.13857763 81
1.569782 -0.01412842 -0.08227212 12
1.5676477 -0.025084503 -0.082167454 7
1.5594468 -0.035873603 -0.081748761 7
1.5711356 -0.047148213 -0.082376793 6
1.5607877 -0.057775509 -0.081853434 7
1.5523636 -0.068348117 -0.081434749 10
1.5538418 -0.079314709 -0.081539422 12
1.6030961 -0.093083978 -0.084156215 3
1.6083844 -0.10469247 -0.084470235 1
1.5837071 -0.11422436 -0.083214171 1
1.5948149 -0.12625314 -0.083842203 1
1.5560844 -0.13415416 -0.081853434 6
1.5531186 -0.1448579 -0.081748761 9
1.5639902 -0.15692244 -0.082376793 7
1.5549101 -0.16701324 -0.081958108 6
1.5497344 -0.17743905 -0.081748761 6
1.5583676 -0.18948814 -0.08227212 6
1.557003 -0.20039199 -0.08227212 6
1.5654576 -0.21263006 -0.082795486 6
1.5601988 -0.22145757 -0.082586139 7
1.5603523 -0.23422843 -0.082690813 6
1.5586745 -0.24514507 -0.082690813 6
1.5608618 -0.25669792 -0.082900152 6
1.5629637 -0.26829338 -0.083109498 6
1.5613258 -0.27766627 -0.083109498 6
1.5534521 -0.28749827 -0.082795486 6
1.5572855 -0.29949692 -0.083109498 6
1.5649441 -0.31234509 -0.083632857 6
1.5588077 -0.32248271 -0.083423518 6
1.5565121 -0.33338636 -0.083423518 6
1.5424404 -0.34168193 -0.082795486 6
1.5516924 -0.35514417 -0.083423518 6
1.5608308 -0.36875254 -0.084051549 6
1.5465684 -0.37683234 -0.083423518 6
7.8124461 -1.9615915 -0.42214182 2
7.7965899 -2.0157301 -0.42203715 10
7.8035202 -2.0759044 -0.42318854 8
7.833107 -2.1425977 -0.425596 8
7.8698316 -2.2119682 -0.42842212 8
7.8714252 -2.2719872 -0.42936417 8
7.8878837 -2.3366749 -0.43114361 8
7.9171972 -2.4057689 -0.43365574 8
7.9306731 -2.4706345 -0.43533048 8
7.9709015 -2.5357327 -0.43836597 8
7.9750395 -2.607487 -0.43972671 8
7.9831076 -2.6721232 -0.44119212 8
8.001997 -2.7408831 -0.44328555 8
8.0203133 -2.8100376 -0.44537899 8
8.0399323 -2.8802557 -0.44757709 6
8.0552073 -2.9495122 -0.44956586 8
8.0568113 -3.0142241 -0.45082194 8
8.0759087 -3.0767314 -0.45291537 8
8.0914021 -3.1476688 -0.4550088 8
8.1025829 -3.2174993 -0.45689291 8
8.1039257 -3.2838891 -0.45825362 8
8.1047354 -3.350455 -0.45961437 8
8.1086893 -3.4187446 -0.46118444 6
8.1084127 -3.4856756 -0.46254519 8
8.1222305 -3.5591826 -0.46474329 6
8.1007652 -3.6175792 -0.46495265 6
8.1079664 -3.6890843 -0.46683672 6
8.114562 -3.7608666 -0.46872082 6
8.1205482 -3.8329213 -0.47060493 6
8.1223221 -3.903513 -0.47227967 6
8.1270914 -3.9760721 -0.47416377 6
8.1205149 -4.0435467 -0.47541982 6
8.1383324 -4.1237626 -0.47814131 6
8.141221 -4.197103 -0.48002538 6
8.1470184 -4.2725401 -0.48211882 6
8.1415825 -4.3426237 -0.48358423 6
8.1460972 -4.4185534 -0.48567766 6
8.1499462 -4.4947581 -0.48777112 6
8.1583529 -4.5741625 -0.49017856 6
8.1643095 -4.652915 -0.49248135 6
8.155735 -4.7239656 -0.49394676 6
8.1482859 -4.7961364 -0.49551684 6
8.1505098 -4.8745842 -0.49771494 6
8.1605673 -4.9584832 -0.50043643 6
8.1630487 -5.0385642 -0.50273919 6
8.1631145 -5.1178608 -0.50493729 6
8.1473064 -5.1877499 -0.50619334 6
8.1510448 -5.2706814 -0.5087055 6
8.1627111 -5.3479505 -0.51142699 6
8.1649857 -5.4315071 -0.51393908 6
8.156558 -5.5086493 -0.51582319 6
8.1458015 -5.5848098 -0.51760262 6
8.1524105 -5.6736379 -0.52053344 6
8.1630659 -5.7662873 -0.52377826 6
8.1760683 -5.86169 -0.52723241 6
8.1768265 -5.9493303 -0.5299539 6
8.171937 -6.0337076 -0.53236133 6
8.172658 -6.1230969 -0.53518748 6
8.1772957 -6.2164164 -0.53832763 6
8.1873512 -6.3149781 -0.54188651 6
8.1869879 -6.4065986 -0.54481733 8
8.1826124 -6.4960375 -0.54753876 8
8.1867161 -6.5932446 -0.5508883 8
8.1867647 -6.6882977 -0.55402845 8
8.0966873 -6.7097573 -0.55109763 23
8.0984449 -6.807394 -0.55444711 8
8.1904202 -6.9831305 -0.56407696 8
8.1957245 -7.0873232 -0.56784511 8
8.1939631 -7.1866617 -0.57119465 8
8.2001629 -7.2942858 -0.57517219 8
8.2008066 -7.3983326 -0.57883567 8
8.1841831 -7.4879131 -0.58134782 8
8.1579208 -7.5694714 -0.58323193 14
8.1701899 -7.6879826 -0.58794212 6
8.1624126 -7.7891078 -0.59129161 8
8.1564875 -7.8932772 -0.59485048 6
8.1409483 -7.9893489 -0.5977813 6
8.1485291 -8.109539 -0.60249156 6
8.1463871 -8.2217112 -0.60657376 6
8.1555939 -8.3303823 -0.61096996 6
8.1442471 -8.4361219 -0.61452878 6
8.1400795 -8.5507879 -0.6187157 6
8.1347027 -8.6658068 -0.62290257 8
8.1281118 -8.7811661 -0.62708944 6
8.1149168 -8.890954 -0.63085759 4
8.1099329 -9.0113764 -0.63535851 6
8.0957041 -9.1231985 -0.63923138 8
8.1079226 -9.2668266 -0.64530236 4
8.1106958 -9.4019947 -0.65074527 6
8.104207 -9.5285225 -0.6555602 6
8.0937738 -9.6523571 -0.66016573 6
7.794405 -9.4286118 -0.64111549 8
8.0486984 -9.876193 -0.66770214 8
8.0131426 -9.9743309 -0.67052829 17
8.0572014 -10.174228 -0.68015808 6
7.9403138 -10.172126 -0.67628521 8
7.7556496 -10.080243 -0.66655076 14
7.5605979 -9.9703674 -0.65576953 8
7.4583387 -9.9798508 -0.65294337 8
7.4522552 -10.118656 -0.65859568 12
7.3272791 -10.096218 -0.65378076 17
7.2018237 -10.070905 -0.64886117 12
7.1576099 -10.158622 -0.65126866 17
7.043046 -10.14613 -0.64729112 6
7.9977865 -11.695443 -0.74254256 6
7.9726305 -11.835622 -0.74788082 10
7.9525266 -11.986002 -0.75384712 14
8.0181074 -12.270432 -0.76818717 8
8.0157852 -12.4291 -0.77509552 2
5.8888888 -9.273056 -0.57569551 2
5.8026562 -9.2801809 -0.57360208 2
5.7354593 -9.3171701 -0.57339275 2
5.626626 -9.2853489 -0.56899649 2
5.522614 -9.259325 -0.56501901 2
5.4162111 -9.2271357 -0.56072742 6
5.1588826 -9.2272625 -0.55402845 99
4.8561354 -9.1307688 -0.54199117 6
4.773592 -9.1291389 -0.53989774 8
4.7040935 -9.1516724 -0.53926969 17
4.6714382 -9.2467709 -0.54293323 4
4.5826178 -9.2309427 -0.54010707 4
4.5494099 -9.3274183 -0.54387528 2
4.4822807 -9.3554335 -0.54366589 4
4.4592009 -9.4769392 -0.54889953 2
4.4329619 -9.5949507 -0.55392379 2
4.4184866 -9.742157 -0.56062275 2
4.3842964 -9.8494825 -0.56501901 2
4.3632083 -9.989749 -0.57129931 2
4.3309298 -10.108168 -0.57632357 2
4.311132 -10.259762 -0.58323193 2
4.2894216 -10.41157 -0.59014022 2
4.2568207 -10.541346 -0.59579253 2
4.2435942 -10.692932 -0.60291022 2
4.0896983 -11.45939 -0.63766128 6
4.6273232 -13.562682 -0.75102097 6
4.5322719 -13.594741 -0.75102097 6
4.427104 -13.595748 -0.7493462 8
4.3239598 -13.60166 -0.74798548 10
4.2268677 -13.625872 -0.74767148 8
4.1296487 -13.64939 -0.74735743 8
4.0311775 -13.668385 -0.7468341 8
3.9320917 -13.684751 -0.74620605 8
3.8329742 -13.700399 -0.74557805 8
3.735929 -13.72304 -0.74536866 12
3.6372213 -13.739202 -0.74484533 4
2.209367 -8.5881958 -0.46474329 14
2.1085355 -8.4406834 -0.45595086 23
2.0508111 -8.4610586 -0.45626485 14
1.9883357 -8.4615974 -0.45553216 19
1.9308294 -8.483098 -0.45595086 10
1.8705417 -8.4925051 -0.45574149 12
1.8077211 -8.4897623 -0.45490414 14
1.7474445 -8.4982958 -0.45469478 19
1.6875255 -8.5083609 -0.45459011 14
1.6271764 -8.5160408 -0.45438078 17
1.5693303 -8.5370445 -0.45490414 19
1.5081437 -8.5399532 -0.45448545 8
1.445659 -8.5345469 -0.45364806 8
1.3858823 -8.5444574 -0.45364806 8
1.3355147 -8.5585394 -0.45396209 14
1.2758667 -8.5696535 -0.45406675 12
1.2147273 -8.5704651 -0.45364806 8
1.1549712 -8.5807371 -0.45375273 14
1.0953834 -8.5925741 -0.45396209 14
3.08868 -25.659304 -1.3544545 11
2.9067426 -25.66045 -1.3534079 17
2.7262061 -25.672224 -1.3529892 28
2.5300841 -25.525715 -1.3443013 61
2.3529913 -25.560699 -1.3452435 11
2.1785774 -25.630276 -1.3480695 5
2.0019076 -25.68074 -1.3499537 5
1.8220948 -25.694124 -1.3499537 5
1.6416835 -25.698277 -1.349535 5
1.4631172 -25.733067 -1.350791 5
1.2831503 -25.746668 -1.3510004 11
1.1035773 -25.770983 -1.3518378 5
0.87898058 -24.544561 -1.2871505 5
0.67310512 -23.368225 -1.2251847 4
0.48174059 -22.098415 -1.1584041 4
0.31025615 -20.966928 -1.0989504 3
0.15582027 -19.985964 -1.0474519 3
0.015142872 -19.015898 -0.99658126 2
-0.11437452 -18.436344 -0.9662264 5
-0.23229676 -17.592321 -0.92205489 4
-0.34551042 -17.099039 -0.89630556 2
-0.43271291 -16.509666 -0.86553204 2
-0.52864301 -15.915369 -0.83454913 2
-0.60270864 -14.983304 -0.78587669 25
-0.69918847 -14.80116 -0.7765609 55
-0.80234581 -14.787926 -0.77614224 36
-0.91072732 -14.861688 -0.78032911 6
-1.0144638 -14.850964 -0.78011978 6
-1.1192951 -14.855448 -0.78074777 6
-1.226207 -14.883079 -0.78263187 6
-1.3328485 -14.90198 -0.78409731 6
-1.4398148 -14.920118 -0.78556269 6
-1.5468944 -14.9355 -0.78692341 6
-1.758402 -14.9342 -0.78807485 31
-1.9858537 -15.048706 -0.79550654 2
-2.0999501 -15.097739 -0.79885602 2
-2.2130957 -15.134052 -0.80157751 2
-2.3086832 -15.051068 -0.79801863 17
-2.418416 -15.062147 -0.79948407 36
-2.6441872 -15.113379 -0.80408961 6
-2.7549267 -15.122008 -0.80555505 6
-2.8674033 -15.137675 -0.80743915 6
-2.9844737 -15.174065 -0.81047463 6
-3.0990002 -15.193898 -0.81267273 6
-3.1983252 -15.214122 -0.81476617 6
-3.3060184 -15.197216 -0.81508017 6
-3.6731818 -15.260621 -0.82261658 12
-3.7885728 -15.269428 -0.82450068 34
-3.890465 -15.287068 -0.82669878 31
-4.0075006 -15.298102 -0.82879221 36
-4.12644 -15.314031 -0.83119965 36
-4.2527289 -15.354063 -0.83496785 34
-4.3748598 -15.375785 -0.83779401 31
-4.4969425 -15.39463 -0.84051543 36
-4.6126223 -15.389559 -0.84198087 31
-4.7349052 -15.404622 -0.84459764 31
-4.8648262 -15.441584 -0.84847051 29
-4.9862938 -15.448968 -0.85077327 36
-5.1118627 -15.466784 -0.85370409 31
-3.0284572 -8.7500257 -0.485259 8
-3.1076264 -8.7794476 -0.48808512 2
-5.6319008 -15.563636 -0.86741614 4
-5.7573328 -15.56879 -0.86992824 4
-5.8887591 -15.587895 -0.87327778 4
-6.0250473 -15.617102 -0.87725532 6
-6.1605678 -15.641443 -0.88102347 6
-6.2952328 -15.660944 -0.88458234 6
-6.428956 -15.675627 -0.88793182 6
-6.5647335 -15.692886 -0.8914907 6
-6.7136912 -15.438268 -0.88227957 29
-6.8515382 -15.458453 -0.88615239 33
-12.22215 -26.635464 -1.535851 7
-12.25608 -26.223566 -1.51701 7
-12.370679 -25.992857 -1.5086362 7
-12.442591 -25.679155 -1.4954476 7
-12.530158 -25.40514 -1.4845617 7
-4.549787 -9.0642843 -0.53152394 6
-4.6394701 -9.0837965 -0.53455943 8
-4.7268853 -9.0971775 -0.53728092 8
-4.8091145 -9.0991831 -0.53937435 6
-4.5700974 -8.5023441 -0.50587934 8
-3.2137344 -5.8798547 -0.35117427 4
-3.2083068 -5.6795177 -0.34185848 30
-3.2827914 -5.7175431 -0.34552199 6
-3.2885096 -5.6357718 -0.34196314 8
-3.3013947 -5.5679469 -0.33924165 8
-3.3155539 -5.5036416 -0.33672956 8
-3.3279331 -5.4377098 -0.33411273 8
-3.3342807 -5.3633947 -0.33097258 8
-3.3472168 -5.3010817 -0.32856512 8
-3.3520517 -5.2388444 -0.32594833 8
-3.370142 -5.1867809 -0.32416892 8
-3.3905983 -5.1279998 -0.32218015 8
-3.390182 -5.0611014 -0.31924933 8
-3.3996944 -4.9992604 -0.31684187 8
-3.4177728 -4.8775711 -0.31213164 33
-3.4205778 -4.8095818 -0.30930549 33
-3.4202619 -4.7385559 -0.30627 33
-3.4344642 -4.6887183 -0.30459526 33
-3.452903 -4.6453271 -0.30333921 33
-3.4636874 -4.5923409 -0.30145511 35
-3.4763279 -4.5426049 -0.29978037 35
-3.4761939 -4.4771428 -0.29705888 39
-3.4802589 -4.4181828 -0.29475611 35
-3.4986324 -4.3781104 -0.2937094 33
-3.5090694 -4.3286891 -0.29203463 33
-3.5189872 -4.2793369 -0.29035988 37
-3.518152 -4.2177896 -0.28784776 39
-3.5192094 -4.1595149 -0.28554499 41
-3.5352328 -4.1196218 -0.28449824 37
-3.5482483 -4.0766959 -0.2832422 39
-3.5608368 -4.0337911 -0.28198612 35
-3.5703349 -3.9879339 -0.28052074 39
-3.5686257 -3.9303131 -0.27821794 35
-3.5744035 -3.8817289 -0.2765432 41
-3.5785656 -3.8397574 -0.27507779 45
-3.5943806 -3.8030014 -0.2742404 39
-3.5988009 -3.7546775 -0.27256566 37
-3.6068983 -3.7107759 -0.27120492 35
-3.6159601 -3.6683681 -0.26994887 39
-3.6217818 -3.6231909 -0.26848346 41
-3.6385241 -3.589334 -0.26785544 43
-3.6320641 -3.5331385 -0.26555264 45
-3.636528 -3.4882715 -0.26408723 41
-3.6463466 -3.4490058 -0.26304051 43
-3.6587157 -3.412499 -0.26220313 39
-3.6736929 -3.3786924 -0.2615751 35
-3.6765406 -3.3341103 -0.26010969 38
-3.6759677 -3.2869923 -0.25843495 38
-3.6869013 -3.2506132 -0.25759757 42
-3.6914768 -3.2090015 -0.25634152 42
-3.7411458 -3.2064784 -0.25822562 7
-3.7268865 -3.1492734 -0.25571349 8
-3.7242875 -3.1026542 -0.25403872 8
-3.736654 -3.0689025 -0.2534107 7
-3.742522 -3.0301032 -0.25236398 7
-3.7573967 -2.998848 -0.25194529 7
-3.7533634 -2.9589388 -0.25047988 7
-3.7519045 -2.915436 -0.24901448 8
-3.7690492 -2.8866727 -0.24880514 7
-3.7716284 -2.8469827 -0.24765374 8
-3.7818499 -2.8133593 -0.24702571 8
-3.7821212 -2.7726471 -0.24576965 8
-3.7820086 -2.7320702 -0.24451359 10
-3.797786 -2.703213 -0.24430424 8
-3.8051689 -2.668535 -0.24357153 8
-3.8221121 -2.6406984 -0.24346687 8
-3.8140852 -2.5958989 -0.24179211 8
-3.8122556 -2.5557907 -0.24053605 10
-3.826719 -2.5268414 -0.24032672 8
-3.8325927 -2.4923708 -0.23959401 7
-3.8415356 -2.4600964 -0.23907065 8
-3.8519042 -2.4288843 -0.23865196 8
-3.8450561 -2.3871133 -0.23718655 10
-3.8514464 -2.3538904 -0.23655853 8
-3.8609834 -2.3227546 -0.23613983 10
-3.8668365 -2.2895656 -0.23551181 10
-3.8724146 -2.2564087 -0.23488377 12
-3.879451 -2.2242794 -0.23436041 8
-3.8862278 -2.1921628 -0.23383705 10
-3.9010563 -2.1697769 -0.23394172 8
-3.898627 -2.1328309 -0.232895 10
-3.9046669 -2.1007569 -0.23237164 10
-3.9104493 -2.0687032 -0.23184828 10
-3.9124308 -2.0348287 -0.23111558 10
-3.9248002 -2.0064828 -0.23101091 8
-3.9280412 -1.9735802 -0.23038287 10
-3.9435508 -1.94692 -0.23048756 8
-3.924736 -1.9035789 -0.22860345 10
-3.9487834 -1.8812133 -0.22923149 8
-3.936528 -1.841677 -0.22776608 10
-3.9692876 -1.8232467 -0.22891748 10
-3.9418967 -1.7773564 -0.22661468 10
-3.968853 -1.7561853 -0.22745207 10
-3.9554002 -1.7172252 -0.22598666 12
-3.9748163 -1.6973839 -0.22651002 10
-3.979053 -1.6616831 -0.22598666 12
-3.9831939 -1.6307623 -0.22556797 10
-3.9759755 -1.5954025 -0.22452125 10
-3.9870458 -1.5675317 -0.22452125 10
-3.9997847 -1.540302 -0.22462593 12
-4.0085998 -1.5115613 -0.22452125 10
-3.9984717 -1.4758568 -0.22336987 10
-4.0053773 -1.4511592 -0.22326519 12
-4.0060244 -1.4197503 -0.22274183 10
-4.0271873 -1.3955976 -0.22336987 12
-4.0273991 -1.3641695 -0.22284651 10
-4.0330577 -1.3346895 -0.22263716 10
-4.0346994 -1.3039688 -0.22221847 10
-4.0437284 -1.2756941 -0.22221847 10
-4.0544682 -1.2479446 -0.22232315 12
-4.0573654 -1.2178105 -0.22200912 10
-4.0542889 -1.1860148 -0.2213811 10
-4.0548086 -1.1554166 -0.22096241 10
-4.058948 -1.1259371 -0.22075306 10
-4.0744429 -1.0995786 -0.22117175 10
-4.0820403 -1.0710309 -0.22117175 10
-4.083631 -1.0409505 -0.22085774 12
-4.0365319 -0.99890596 -0.21792692 31
-4.0434256 -0.97062594 -0.21792692 38
-4.0501208 -0.94229841 -0.21792692 38
-4.0644112 -0.91568059 -0.21834561 36
-4.0668182 -0.88635689 -0.21813627 38
-4.0611968 -0.85539782 -0.21750824 40
-4.074914 -0.8285405 -0.21792692 35
-4.119813 -0.80768096 -0.22002035 12
-4.1304717 -0.78406513 -0.22033438 14
-4.1279998 -0.75369787 -0.21991569 10
-4.12924 -0.72409374 -0.21970634 10
-4.1361771 -0.69550276 -0.21981102 12
-4.140944 -0.6665327 -0.21981102 12
-4.1415601 -0.63692284 -0.21960168 28
-4.1222034 -0.60443944 -0.21834561 49
-4.1382022 -0.57722491 -0.21897364 45
-4.1223416 -0.54562294 -0.21792692 45
-4.4925504 -0.53073955 -0.23708189 5
-4.5199761 -0.5019241 -0.23833795 5
-4.5194058 -0.46985918 -0.2381286 3
-4.550415 -0.44090879 -0.23959401 3
-4.561347 -0.40976012 -0.24001269 3
-4.5680842 -0.37815046 -0.24022204 3
-4.5706196 -0.34616488 -0.24022204 3
-4.5726142 -0.31873509 -0.24022204 3
-4.5667601 -0.28621951 -0.23980336 5
-4.5726399 -0.2544674 -0.24001269 5
-4.5822887 -0.22284099 -0.24043138 5
-4.5797453 -0.19059367 -0.24022204 3
-4.5769753 -0.15839291 -0.24001269 3
-4.5779719 -0.12635046 -0.24001269 5
-4.5867314 -0.094466321 -0.24043138 3
-4.5912743 -0.062411446 -0.24064073 5
-4.5876045 -0.030244924 -0.24043138 5
-4.5677309 0.001860649 -0.23938467 5
-4.5795894 0.033923227 -0.24001269 5
-4.5992103 0.066266999 -0.24105941 5
-4.6106143 0.098716103 -0.24168745 3
-4.6138034 0.13110118 -0.24189679 5
-4.6047888 0.16311152 -0.2414781 5
-4.6194978 0.19601816 -0.24231547 5
-4.6259918 0.22874413 -0.24273416 5
-4.6282654 0.26134542 -0.24294351 5
-4.6223364 0.2934835 -0.24273416 5
-4.6261454 0.32625392 -0.24304818 5
-4.6376872 0.3597098 -0.24378088 5
-4.6390362 0.39250129 -0.24399023 5
-4.6361747 0.42496467 -0.24399023 5
-4.6291113 0.45701477 -0.24378088 5
-4.6322451 0.4854055 -0.24409489 7
-4.6307187 0.51804107 -0.24419957 5
-4.6269789 0.55044317 -0.24419957 5
-4.9380827 0.62253886 -0.26084241 10
-4.9336042 0.65708989 -0.26084241 7
-4.9367952 0.69271886 -0.26126111 7
-4.9476323 0.72959012 -0.26209846 7
-4.9601684 0.76695216 -0.26304051 7
-4.9704514 0.80420631 -0.2638779 9
-4.9706078 0.83997786 -0.2641919 7
-4.9646063 0.87475127 -0.2641919 9
-4.9701486 0.91164374 -0.26481995 7
-4.9813027 0.94977885 -0.26576197 9
-4.9921651 0.98811466 -0.26670402 9
-4.9949088 1.0250428 -0.26722738 9
-4.9973793 1.0620577 -0.26775074 7
-5.0093293 1.1013017 -0.26879746 7
-5.0151305 1.1394372 -0.26953018 7
-5.0342546 1.1809006 -0.27099559 7
-5.0258651 1.2161112 -0.27099559 7
-5.0242929 1.2476884 -0.27130958 7
-5.0347857 1.2877767 -0.2723563 7
-5.0526886 1.3301067 -0.27382171 7
-5.0509653 1.3675305 -0.2742404 7
-5.054738 1.4066015 -0.27497312 7
-5.0620513 1.44689 -0.27591518 7
-5.0709639 1.4879119 -0.27696189 7
-5.0757241 1.5279777 -0.27779925 7
-5.0973468 1.5734848 -0.27957869 7
-5.0900164 1.6103323 -0.27978802 7
-5.0938191 1.6508486 -0.2806254 7
-5.1010947 1.6927551 -0.28167212 7
-5.1118145 1.7361286 -0.28292817 7
-5.1184025 1.7784237 -0.28397489 7
-5.1189356 1.8131028 -0.28460294 7
-5.115531 1.8580871 -0.28523096 7
-5.1305141 1.8984503 -0.28669637 7
-5.152596 1.9477351 -0.28868514 7
-5.1593313 1.9916673 -0.28983653 7
-5.1601286 2.0335917 -0.29067391 7
-5.1680031 2.0786061 -0.29192996 7
-5.1754994 2.1238298 -0.29318604 7
-5.1752448 2.1661751 -0.29402339 7
-5.1966939 2.2180293 -0.29611683 7
-5.1956916 2.2607265 -0.29695421 7
-5.1943455 2.3035178 -0.2977916 7
-5.2163153 2.3570926 -0.2999897 7
-5.219645 2.4027355 -0.30114108 7
-5.2352486 2.4544749 -0.30302519 7
-5.2323585 2.4979448 -0.30386257 7
-5.232708 2.5432405 -0.30490929 7
-5.2362595 2.5904343 -0.30616534 7
-5.246541 2.6413944 -0.30784011 7
-5.2705855 2.6999094 -0.31035221 7
-5.2763538 2.7496593 -0.31181762 7
-5.2781529 2.7977507 -0.31307369 7
-5.2883272 2.8507402 -0.3148531 8
-5.2910109 2.9001684 -0.31621385 8
-5.3159409 2.9624124 -0.3189353 8
-5.3067651 2.9991679 -0.31945866 8
-5.32201 3.0571332 -0.32165679 8
-5.3246279 3.1084092 -0.3231222 8
-5.3456826 3.1710796 -0.325739 8
-5.3592768 3.230072 -0.3279371 8
-5.3637886 3.2841945 -0.32961184 8
-5.3745875 3.3427567 -0.3317053 8
-3.6310792 2.329495 -0.22609133 21
-3.6012962 2.3461335 -0.22525395 24
-3.5448062 2.3448393 -0.22274183 22
-3.5050931 2.3540058 -0.22127642 26
-3.4670765 2.3638573 -0.21991569 24
-3.4373064 2.3789756 -0.21907832 24
-3.3976896 2.3869047 -0.21761291 26
-3.3532524 2.3909183 -0.21583349 28
-3.3113198 2.3911173 -0.21405406 26
-3.2832239 2.4059739 -0.21332136 28
-3.2550828 2.4205546 -0.21258865 26
-3.2205219 2.4300478 -0.21143727 28
-3.1844025 2.4379623 -0.21018121 24
-3.1451764 2.4430404 -0.2087158 26
-3.1232922 2.461288 -0.20840178 24
-3.0857067 2.4668775 -0.20704104 24
-3.055953 2.4783525 -0.20620367 24
-3.0431571 2.50349 -0.20651768 11
-3.1957746 2.6667705 -0.21813627 15
-3.2059944 2.7135921 -0.22012503 31
-3.1823745 2.7320642 -0.21981102 31
-3.1511221 2.7437813 -0.21897364 33
-3.1078856 2.7446187 -0.2172989 38
-3.0618176 2.7423213 -0.21541479 38
-3.0277624 2.7502575 -0.21436808 36
-2.996685 2.7605586 -0.2135307 29
-2.9991796 2.8019195 -0.21510078 5
-3.0142899 2.8558125 -0.21761291 7
-3.2261016 3.0996282 -0.23446508 15
-3.2901554 3.2057633 -0.2407454 17
-3.2960489 3.2567916 -0.24283883 17
-3.2985661 3.3052306 -0.24472293 15
-3.3123317 3.3590937 -0.24723506 17
-3.3193688 3.4136996 -0.24953784 15
-3.3230376 3.4656842 -0.25163129 17
-3.3302565 3.5222397 -0.25403872 14
-3.3422928 3.5849075 -0.25686488 17
-3.3563166 3.6508555 -0.25990036 14
-3.3548238 3.700896 -0.26178446 16
-3.3607795 3.7600276 -0.26429659 15
-3.3700318 3.8239176 -0.26712272 18
-3.394273 3.9062107 -0.27120492 16
-3.3967338 3.9647598 -0.27361238 18
-3.3985398 4.0235329 -0.27601984 15
-3.4009657 4.0840588 -0.27853197 18
-3.4318576 4.1803188 -0.28345153 13
-3.4452314 4.2570252 -0.28701037 16
-3.4539607 4.3294368 -0.29025522 15
-3.4544353 4.3927574 -0.29287201 15
-3.4652038 4.4705019 -0.29643086 16
-3.484751 4.5613065 -0.30082709 15
-3.4983888 4.6462183 -0.30480462 15
-3.508626 4.728334 -0.3085728 15
-3.5225985 4.8172665 -0.31275967 13
-3.5331604 4.9033823 -0.3167372 16
-3.5496247 4.9996505 -0.32134277 16
-3.5677133 5.0895472 -0.325739 14
-3.5751278 5.1768475 -0.32971653 14
-3.5893571 5.2760568 -0.33442676 14
-3.60237 5.3757153 -0.33913699 14
-3.6229627 5.4891467 -0.3446846 12
-3.6345215 5.591403 -0.34949952 12
-3.6491308 5.7008152 -0.35473311 12
-3.6613188 5.8090119 -0.35986203 14
-3.6879649 5.9431105 -0.36656103 10
-3.6993742 6.0557046 -0.37189931 12
-3.7237947 6.192708 -0.37870297 10
-3.7403717 6.3200321 -0.38487864 10
-3.7553456 6.4478865 -0.39105427 12
-3.7792637 6.5794106 -0.3976486 10
-3.8068149 6.736114 -0.40549898 8
-3.8323538 6.8935194 -0.41334939 10
-3.8577886 7.0551105 -0.42140913 8
-3.8773615 7.2103529 -0.42905018 8
-3.9014819 7.3785677 -0.43742391 8
-3.9280396 7.5563278 -0.44632104 8
-3.881026 7.7283778 -0.45322937 34
-3.8224137 7.7463999 -0.45270601 44
-3.7593834 7.7549944 -0.45165929 29
-3.7015722 7.7739072 -0.45124063 44
-3.6394506 7.7833443 -0.45029858 31
-3.5773787 7.7922935 -0.44935653 40
-3.5231593 7.7972364 -0.44841447 38
-3.463635 7.8107524 -0.44778645 38
-3.4040942 7.8238182 -0.4471584 40
-3.3492446 7.8474545 -0.4471584 40
-3.2834351 7.8449135 -0.44569302 40
-3.2163093 7.8381414 -0.44401824 42
-3.1583831 7.8530512 -0.44359955 42
-3.1004057 7.8675346 -0.44318089 40
-3.043819 7.8853178 -0.44297153 40
-2.9828982 7.8914852 -0.44213417 40
-2.9206543 7.8934407 -0.44108742 40
-2.7082596 7.4798846 -0.41690823 31
-2.6484997 7.4779496 -0.41575682 31
-2.5967433 7.4981933 -0.41586152 34
-2.5371487 7.4953766 -0.4147101 34
-2.4871278 7.5205379 -0.4151288 36
-2.4264438 7.5130553 -0.41376808 36
-2.3767958 7.5393806 -0.41429144 36
-2.322201 7.5501065 -0.41397741 36
-2.2692938 7.5661764 -0.41397741 34
-0.95039266 3.2512925 -0.17752357 4
-0.84129876 3.0352407 -0.16506761 53
-0.82523155 3.060339 -0.16611433 46
-0.80024374 3.0525167 -0.16538163 46
-0.78092462 3.0533934 -0.16517228 46
-0.75760657 3.0510314 -0.16475359 46
-0.73716646 3.0601432 -0.16496293 46
-0.72208554 3.0924575 -0.16642834 45
-0.69777775 3.085748 -0.1658003 45
-0.67616057 3.0905569 -0.1658003 45
-0.6536839 3.091306 -0.16559097 45
-0.633627 3.1036336 -0.16600965 46
-0.61342943 3.1158316 -0.16642834 41
-0.58788294 3.1004262 -0.16538163 46
-0.56616575 3.1044655 -0.16538163 46
-0.54579908 3.1162217 -0.1658003 46
-0.52661866 3.1357234 -0.16663769 37
-0.50338787 3.1314449 -0.166219 45
-0.47963652 3.1230474 -0.16559097 46
-0.45747426 3.124352 -0.16548629 48
-0.43697035 3.1373687 -0.16600965 39
-0.41499826 3.1403506 -0.16600965 44
-0.39325359 3.1451604 -0.16611433 48
-0.37099412 3.1458526 -0.16600965 48
-0.34940428 3.1523426 -0.166219 41
-0.32650501 3.1467648 -0.1658003 45
-0.30504647 3.1549373 -0.16611433 48
-0.28420269 3.1709201 -0.16684704 42
-0.26450673 3.164607 -0.16642834 44
-0.24173851 3.1584153 -0.16600965 45
-0.21990082 3.1640151 -0.166219 45
-0.19799656 3.1694634 -0.16642834 45
-0.17624792 3.1787486 -0.16684704 42
-0.15283325 3.1559653 -0.16559097 46
-0.13057265 3.1529667 -0.16538163 48
-0.10870487 3.1597917 -0.16569564 48
-0.086802632 3.1684613 -0.16611433 46
-0.064825051 3.1789756 -0.16663769 52
-0.042891704 3.2033165 -0.16789375 35
-0.020429339 3.1975465 -0.16757973 48
0.0019599053 3.2075975 -0.1681031 34
0.024458459 3.2134967 -0.16841711 49
0.047039695 3.219238 -0.16873112 34
0.069443546 3.2128394 -0.16841711 38
0.088608943 3.2083719 -0.16820776 42
0.11147987 3.2196496 -0.16883579 42
0.13418067 3.2227812 -0.16904514 42
0.15731896 3.2337325 -0.16967317 37
0.17972903 3.2285638 -0.16946383 42
0.20232439 3.2272265 -0.16946383 44
0.22518767 3.2297161 -0.16967317 41
0.24824858 3.2340348 -0.16998719 44
0.27188134 3.2441595 -0.17061521 44
0.29458362 3.2421768 -0.17061521 44
0.31688216 3.2360599 -0.17040588 39
0.34036085 3.2417078 -0.17082456 44
0.36482391 3.2551246 -0.17166194 45
0.38570991 3.2366252 -0.17082456 46
0.41010818 3.2477167 -0.17155726 48
0.43362421 3.2507055 -0.17187127 38
0.45720214 3.2535241 -0.1721853 50
0.48171607 3.2620988 -0.17281333 37
0.50188708 3.263098 -0.17302267 46
0.53011268 3.2930267 -0.17480209 45
0.55381316 3.2931745 -0.17501144 46
0.57926667 3.3029878 -0.17574415 39
0.60022056 3.2870634 -0.17511611 48
0.62954783 3.316139 -0.17689553 43
0.65351766 3.3155701 -0.17710488 45
0.67671049 3.3109143 -0.17710488 43
0.70400643 3.3256357 -0.17815159 40
0.72812307 3.3245282 -0.17836094 40
0.75402242 3.3310378 -0.17898896 39
0.77777559 3.3276229 -0.17909364 48
0.80058157 3.3201554 -0.17898896 42
0.82717514 3.328038 -0.17972167 33
0.85490876 3.3395801 -0.18066372 49
0.87928236 3.3373768 -0.18087307 42
0.90471166 3.338851 -0.18129176 40
0.92913294 3.3362844 -0.18150109 42
0.95570219 3.353699 -0.18275715 39
0.97915447 3.3469269 -0.18275715 43
1.0105976 3.3667722 -0.18422256 40
1.0353153 3.3634334 -0.18443191 43
1.0636412 3.3713415 -0.18526928 40
1.0921283 3.3790171 -0.18610667 43
1.1220298 3.3902504 -0.18715338 40
1.1521417 3.4012301 -0.1882001 40
1.1726518 3.3836462 -0.18767674 45
1.2016461 3.390415 -0.18851411 36
1.2321531 3.4006984 -0.18956083 45
1.2607821 3.4051011 -0.19029354 40
1.2845867 3.3961921 -0.19029354 25
1.3184035 3.4132004 -0.19175895 57
1.3349367 3.3853078 -0.19071223 43
1.3645662 3.3907032 -0.1915496 42
1.3943365 3.3958488 -0.19238697 43
1.4304175 3.4154809 -0.19406173 45
1.4621347 3.4237521 -0.19510844 43
1.4961729 3.4460623 -0.19688787 39
1.5226831 3.440984 -0.19720188 37
1.5565842 3.4520898 -0.19845794 37
1.5966837 3.4667382 -0.20002803 52
1.618367 3.450052 -0.199714 29
1.6450512 3.4529014 -0.20044671 53
1.6691811 3.4413013 -0.20044671 40
1.7064919 3.4563961 -0.20201679 47
1.7369217 3.4568586 -0.20274949 39
1.7956257 3.512192 -0.20672703 13
1.8044996 3.469414 -0.20494761 27
1.8604965 3.516722 -0.20850645 32
1.8983163 3.5282362 -0.20997186 33
3.2170877 5.8802972 -0.35127893 36
3.2445788 5.8331976 -0.34981352 36
4.3270836 7.5292521 -0.45511347 2
3.2152586 5.5050826 -0.33411273 12
3.3153617 5.3281207 -0.32887915 2
3.3259015 5.2625742 -0.32626235 12
3.3389239 5.2021856 -0.32395956 12
3.3087335 5.0766182 -0.31757459 36
3.3210413 5.0183558 -0.31537646 30
2.5213821 3.760782 -0.23729123 7
2.5184269 3.7001116 -0.23456976 12
2.5317774 3.6643171 -0.23341836 15
2.5137868 3.5843673 -0.22944084 17
2.5191259 3.5390217 -0.22766142 31
2.5391588 3.5148253 -0.22724272 21
2.4999325 3.4099841 -0.22159044 17
2.5082431 3.3715692 -0.2202297 19
2.522156 3.3411765 -0.21939233 19
2.5272655 3.2996554 -0.21782225 22
2.545399 3.2755756 -0.21740356 22
2.5633192 3.251404 -0.21698487 22
2.5660565 3.208425 -0.21531013 22
2.524276 3.1112838 -0.20997186 15
2.5231476 3.0657792 -0.20808776 16
2.5304666 3.0311768 -0.20693637 21
2.5412972 3.0011957 -0.20609899 22
2.5544355 2.9742422 -0.20547096 19
2.5486484 2.9317305 -0.20358688 22
2.5625036 2.9063277 -0.2030635 24
2.5747969 2.8793862 -0.20243548 26
2.5814722 2.8464975 -0.20138876 21
2.6026862 2.8298278 -0.20149343 21
2.5979097 2.7852499 -0.19960934 19
2.5816579 2.7292714 -0.19688787 19
2.5785775 2.6880717 -0.19521312 22
2.579226 2.651345 -0.19385238 24
2.5752795 2.6104765 -0.19217764 19
2.5821888 2.58109 -0.19134025 27
2.5760119 2.5391166 -0.18956083 24
2.5879936 2.5154543 -0.18914215 27
2.608422 2.5000408 -0.18935148 24
2.6229553 2.478977 -0.18914215 27
2.6256325 2.446939 -0.18809542 22
2.622108 2.4095798 -0.18663003 24
2.6418707 2.3938484 -0.18683936 21
2.6436689 2.3619897 -0.18579264 21
2.6301646 2.3170216 -0.18369921 18
2.6199143 2.2802193 -0.18202445 21
2.628233 2.255321 -0.18150109 30
2.6180346 2.2149382 -0.17972167 19
2.6472788 2.2080715 -0.18066372 27
2.6564994 2.1844125 -0.18024503 25
2.6484523 2.146898 -0.17867495 22
2.6446922 2.1133449 -0.17741889 19
2.6390238 2.0787141 -0.17605816 22
2.6535101 2.0601902 -0.17605816 27
2.6646941 2.0391378 -0.17584881 25
2.6661458 2.010814 -0.17501144 25
2.6513028 1.9706558 -0.17312734 22
2.6456971 1.9378861 -0.17187127 19
2.6446221 1.9087989 -0.17092924 22
2.6595464 1.8913975 -0.1710339 24
2.6498213 1.856689 -0.16956849 30
2.6463163 1.8267486 -0.16852178 28
2.6590385 1.8081799 -0.16852178 30
2.6683118 1.7872994 -0.16831243 28
2.6807573 1.7685776 -0.16831243 28
2.683023 1.7432401 -0.16768441 30
2.6917949 1.7222636 -0.16747506 28
2.6987023 1.7039493 -0.16726571 24
2.7105639 1.6850168 -0.16726571 23
2.7120712 1.6597464 -0.16663769 28
2.7133579 1.6345378 -0.16600965 30
2.7075531 1.6053183 -0.16496293 33
2.7238991 1.5893459 -0.16527694 9
2.6916559 1.5453786 -0.16266015 31
2.7024074 1.5264993 -0.16266015 34
2.7165182 1.5094854 -0.1628695 34
2.7200077 1.4866015 -0.16245081 30
2.7197917 1.4618517 -0.16182278 30
2.7299578 1.4427775 -0.16182278 30
2.743535 1.4254744 -0.16203213 30
2.7392163 1.3989675 -0.16119474 31
2.7489419 1.3797588 -0.16119474 30
2.7513678 1.3569489 -0.16077606 31
2.7607989 1.3376563 -0.16077606 30
2.7737017 1.3200146 -0.1609854 31
2.7756362 1.297184 -0.16056672 30
2.7773871 1.2743912 -0.16014802 31
2.7898819 1.2565588 -0.16035737 31
2.794956 1.2353841 -0.16014802 28
2.8059812 1.2201852 -0.16035737 26
2.7997568 1.1942446 -0.15952 24
2.8006775 1.1715342 -0.15910131 24
2.8025653 1.1460676 -0.15868261 24
2.8093913 1.1292317 -0.15868261 33
2.8246603 1.112466 -0.15910131 33
2.8286517 1.0912285 -0.15889196 34
2.8362207 1.0714014 -0.15889196 37
2.8492708 1.0535998 -0.15920597 30
2.8509419 1.0315906 -0.15889196 27
2.8543277 1.0102761 -0.15868261 24
2.8424554 0.98373908 -0.1576359 24
2.8454878 0.962538 -0.15742655 27
2.8597414 0.94510305 -0.15784524 30
3.0430541 0.98211145 -0.16757973 19
3.0574741 0.96318662 -0.16799842 22
3.0775054 0.94586825 -0.16873112 16
3.0917037 0.92659628 -0.16914982 12
3.1230371 0.9122116 -0.17051055 11
3.140872 0.89360744 -0.17113857 13
3.1585991 0.87479818 -0.17176661 17
3.2475703 0.8750096 -0.1762675 9
3.3435454 0.87938559 -0.18118708 6
3.6011794 0.92024291 -0.19479443 4
6.961123 1.7270226 -0.37587684 10
7.0623646 1.699751 -0.38069174 14
7.0663099 1.6484582 -0.38027304 8
7.3679519 1.6645318 -0.39586917 4
7.3638134 1.6095041 -0.39503181 10
7.2400646 1.5294349 -0.38780943 10
7.2447219 1.4775201 -0.38749543 19
7.2862425 1.4329377 -0.38917017 6
7.4079499 1.403085 -0.39513648 6
7.411695 1.3501216 -0.39482245 10
7.4052253 1.2954538 -0.39398509 8
7.3353219 1.2303703 -0.38979819 8
7.3161469 1.174561 -0.38833278 8
7.2926025 1.1184751 -0.38665804 8
7.2745619 1.0636435 -0.3852973 6
7.23633 1.0063683 -0.38288987 10
7.2451773 0.95595098 -0.38299453 14
7.1684527 0.89482123 -0.3785983 12
1.565469 0.16210915 -0.082481466 4
1.5606014 0.15057155 -0.082167454 6
1.5655957 0.13999952 -0.082376793 6
1.5565848 0.12821721 -0.081853434 6
1.5634191 0.11776813 -0.082167454 9
1.5767783 0.098179027 -0.082795486 31
1.5614731 0.086257957 -0.081958108 37
1.5700184 0.075710423 -0.082376793 10
1.5566044 0.062586315 -0.081644088 12
1.5609967 0.05182118 -0.081853434 24
1.5812447 0.042997215 -0.082900152 25
1.5735196 0.031766288 -0.082481466 27
1.5617208 0.020592961 -0.081853434 27
1.5718129 0.0097222691 -0.082376793 24
-1.5738386 0.0022149375 -0.082481466 16
1.9016153 -0.019016786 -0.033194479 34
1.8974367 -0.032259531 -0.033124667 36
1.8891679 -0.045348737 -0.032985047 34
1.8928595 -0.056802824 -0.033054858 32
1.8843514 -0.071639843 -0.032915238 38
1.8838038 -0.084828436 -0.032915238 43
1.849215 -0.096245944 -0.032321855 34
1.8445035 -0.10895216 -0.032252047 28
1.8496817 -0.12225656 -0.032356761 29
1.850775 -0.13534708 -0.032391667 37
1.8597487 -0.14909811 -0.03256619 36
1.8387381 -0.16037504 -0.032217141 36
1.829607 -0.1724914 -0.032077525 34
1.8404773 -0.1846637 -0.032286953 36
1.8530574 -0.19903731 -0.032531284 34
1.8655258 -0.21359605 -0.032775618 33
1.8619999 -0.226408 -0.032740716 34
1.8623527 -0.23969162 -0.032775618 43
1.8645923 -0.25326037 -0.03284543 41
1.8746512 -0.26800424 -0.033054858 37
1.8944821 -0.2843855 -0.033438809 31
1.8904697 -0.29732913 -0.033403907 27
1.8903153 -0.31087953 -0.033438809 27
1.8920345 -0.32478064 -0.033508621 17
1.8956201 -0.33907312 -0.033613335 8
8.1438961 -1.5746795 -0.14478517 73
8.126792 -1.6304677 -0.14468046 84
8.1269264 -1.6897571 -0.14488988 76
8.1207638 -1.747866 -0.14499459 52
8.1278496 -1.8090125 -0.14534365 39
8.118885 -1.8667589 -0.14541344 26
7.9909515 -1.9555193 -0.14359841 7
9.6911478 -2.4436109 -0.17445426 9
9.7280006 -2.5254579 -0.17543159 6
9.7216759 -2.5965877 -0.17564102 6
9.7406406 -2.6643672 -0.17626931 6
9.7371521 -2.7368147 -0.17654854 6
9.7600241 -2.8171072 -0.17731644 6
9.789916 -2.9001253 -0.17822397 6
9.8038149 -2.9790483 -0.17885226 6
9.8132687 -3.0571177 -0.17941074 6
9.8144884 -3.1330326 -0.1798296 6
9.8227282 -3.2115996 -0.18038808 6
9.8341398 -3.2917047 -0.18101636 6
9.8486929 -3.3734221 -0.18171446 6
9.8701305 -3.458149 -0.18255217 6
9.8795681 -3.539294 -0.18318045 6
9.8996172 -3.6248653 -0.18401818 6
9.9226971 -3.7122912 -0.18492571 6
9.9338274 -3.7959344 -0.18562379 6
9.9479971 -3.8813684 -0.1863917 6
9.9465923 -3.9612668 -0.18688037 6
9.9556713 -4.0458527 -0.18757847 6
9.9788294 -4.1368852 -0.18855579 6
10.004883 -4.2299967 -0.18960294 6
10.008082 -4.3141751 -0.19023123 6
10.00693 -4.3969965 -0.19078971 6
10.016058 -4.4849153 -0.19155762 6
10.046275 -4.5831366 -0.19274437 6
10.071979 -4.6803136 -0.19386134 6
10.05343 -4.7575455 -0.19414057 6
10.077528 -4.8555779 -0.19525753 6
10.122289 -4.964747 -0.19679333 6
10.130228 -5.0569162 -0.19763105 6
10.140936 -5.1512499 -0.19853857 6
10.157924 -5.2496524 -0.19958572 6
10.177567 -5.3504047 -0.20070267 6
10.182189 -5.4441447 -0.2015404 6
10.235185 -5.5649562 -0.20335545 6
10.234482 -5.6577501 -0.20412335 6
10.222519 -5.7449274 -0.20468183 6
10.26431 -5.8497248 -0.20621763 6
10.281943 -5.9555082 -0.2074044 6
10.288257 -6.0557375 -0.20838173 6
10.303965 -6.1625037 -0.2095685 6
10.328934 -6.2760153 -0.21096469 6
10.318782 -6.3691702 -0.21166278 6
10.341715 -6.4837337 -0.21305898 6
10.360173 -6.5967798 -0.21438536 6
10.367477 -6.7038851 -0.21550232 6
10.397189 -6.8267798 -0.21710794 6
10.415701 -6.9437618 -0.21850413 6
10.393336 -7.0344343 -0.21906261 6
10.399879 -7.1455169 -0.22024937 6
10.38897 -7.2455945 -0.22108708 6
10.37064 -7.3412466 -0.22178519 6
10.341734 -7.4299955 -0.22227384 6
10.325019 -7.5281234 -0.22304176 6
10.191693 -7.5407438 -0.22129652 6
9.7772493 -7.3405614 -0.21340802 13
9.6588163 -7.3579268 -0.21194202 13
9.6608686 -7.4669356 -0.21312879 13
9.6776018 -7.5886712 -0.21466459 6
10.209524 -8.1218262 -0.22771899 6
10.220893 -8.2483501 -0.22925481 6
9.345911 -7.6508756 -0.21082507 3
10.196724 -8.4672804 -0.2313491 10
10.286565 -8.6466846 -0.23456034 7
8.68431 -7.4042196 -0.19920176 16
8.6231928 -7.4569798 -0.19899234 9
8.8308687 -7.7452712 -0.20503087 9
8.9348116 -7.9477773 -0.20873079 6
9.0363455 -8.1521111 -0.21243069 10
8.6515293 -7.9154997 -0.20468183 9
8.5358076 -7.9201002 -0.20325072 13
8.5427809 -8.0385818 -0.20475163 9
8.6917324 -8.294219 -0.20970811 3
8.7254276 -8.4438572 -0.21194202 13
9.673728 -9.4935846 -0.23658483 10
9.7303486 -9.6837902 -0.23962153 14
9.6130629 -9.7019482 -0.23839988 10
8.9328098 -9.1425266 -0.22311157 13
8.813096 -9.1472292 -0.22171538 10
8.8177166 -9.2811832 -0.22346061 6
9.8462572 -10.510149 -0.25138447 10
9.8782845 -10.693387 -0.25410703 7
9.9001446 -10.868712 -0.2566202 7
9.9307184 -11.056765 -0.25941256 7
9.9511843 -11.236789 -0.26199552 7
9.9643517 -11.411612 -0.26443887 7
9.9938192 -11.608379 -0.26737088 7
10.013251 -11.796967 -0.27009344 10
10.030528 -11.986388 -0.27281603 14
10.015097 -12.139604 -0.27470088 14
9.8554325 -12.117879 -0.27264148 29
9.7378445 -12.146006 -0.27173397 21
9.6327467 -12.188769 -0.2711755 25
9.532443 -12.236969 -0.27075663 21
9.3363132 -12.312052 -0.2697095 29
9.2235651 -12.341865 -0.26894158 10
9.1351938 -12.429759 -0.26925573 7
7.4293227 -10.258388 -0.22108708 6
7.3176222 -10.232835 -0.21958618 13
7.1605821 -10.162841 -0.21700323 13
7.0835657 -10.204502 -0.2168287 13
7.0311503 -10.281898 -0.21742208 10
8.5286646 -12.661071 -0.26646334 18
9.4492025 -14.241784 -0.29833144 12
8.3341713 -12.754117 -0.26593977 29
9.2802801 -14.421439 -0.29934368 12
5.6883364 -9.4084015 -0.19190666 3
5.5095105 -10.042174 -0.19993477 3
5.4390807 -10.080494 -0.19993477 3
5.074749 -9.8971014 -0.19414057 3
4.9999456 -9.9216671 -0.19393115 3
4.5753622 -9.4044847 -0.18255217 6
4.5404596 -9.501235 -0.18380874 3
5.0138946 -13.492314 -0.25124484 10
4.9138589 -13.512047 -0.2509656 14
4.8191552 -13.546112 -0.2509656 10
4.7150164 -13.553073 -0.25047693 7
4.6123042 -13.563027 -0.25005808 10
4.5147285 -13.58739 -0.24991846 10
4.419507 -13.61866 -0.24991846 7
4.3204455 -13.637825 -0.24970903 10
4.2177887 -13.644808 -0.24929017 10
4.1129379 -13.643364 -0.2487317 7
4.0139518 -13.660309 -0.24852227 10
3.9204333 -13.695761 -0.24866189 10
3.8223202 -13.715163 -0.24852227 14
3.7199411 -13.718423 -0.24810341 10
3.6207628 -13.732525 -0.24789397 10
3.520577 -13.742037 -0.24761474 7
3.4242973 -13.766344 -0.24761474 10
2.4014196 -9.9075699 -0.17794473 6
2.5341952 -10.784566 -0.19337267 6
2.7311337 -11.999234 -0.21480422 6
2.7244978 -12.369577 -0.22108708 13
2.7394605 -12.865573 -0.22960386 3
5.1963696 -25.271355 -0.45034191 18
5.0146761 -25.283571 -0.44992304 18
4.8368192 -25.314127 -0.44985324 28
4.6515493 -25.304094 -0.44908533 9
4.3073821 -24.390808 -0.43233103 17
4.2447486 -25.059164 -0.44364017 18
3.5905604 -25.516691 -0.44978341 18
3.4145048 -25.561022 -0.45013246 9
3.2359972 -25.588264 -0.45020229 9
3.0568016 -25.610289 -0.45020229 18
2.88638 -25.710546 -0.45159847 9
2.7042451 -25.710236 -0.45124942 19
2.7245364 -27.770418 -0.48706177 11
1.9744942 -25.660225 -0.44922495 18
1.7964993 -25.697355 -0.44964379 18
1.6443235 -25.739603 -0.45020229 18
1.4659237 -25.782425 -0.45076075 18
1.2848151 -25.780071 -0.45055133 18
1.1056933 -25.8204 -0.4511098 18
0.92549753 -25.843494 -0.45138904 19
0.70714748 -24.550076 -0.42870092 8
0.33604991 -22.710054 -0.39644885 14
0.16562945 -21.244118 -0.37082872 5
0.016054686 -20.160923 -0.35191032 5
-0.11911643 -19.200706 -0.33515602 4
-0.24908173 -18.863482 -0.329292 9
-0.35696065 -17.665703 -0.30841893 4
-0.46918842 -17.24299 -0.30108893 4
-0.56703675 -16.571775 -0.28943071 3
-0.65930134 -15.991977 -0.27937812 3
-0.7231468 -14.990281 -0.26196063 18
-0.81813008 -14.805154 -0.25881919 29
-0.91988069 -14.769127 -0.25829563 14
-1.2426033 -14.899998 -0.26098329 7
-1.3477727 -14.900892 -0.26115781 7
-1.4547621 -14.918957 -0.26164648 7
-1.5637343 -14.952163 -0.2624144 7
-1.6714671 -14.968673 -0.26290306 7
-1.7785642 -14.976463 -0.26325211 7
-1.8838544 -14.967615 -0.26332191 7
-1.9793812 -14.999658 -0.26408982 7
-2.0854313 -14.993357 -0.26422945 7
-2.2128847 -15.027632 -0.26513696 7
-2.3222952 -15.039441 -0.26562563 7
-2.4338934 -15.062299 -0.26632372 7
-2.5315011 -15.090811 -0.26709163 7
-2.6432772 -15.108177 -0.26771992 7
-2.7575705 -15.136519 -0.26855764 7
-2.8723898 -15.164001 -0.26939535 7
-2.9846411 -15.174915 -0.26995382 7
-3.0987842 -15.192839 -0.27065191 7
-3.2124975 -15.205993 -0.2712802 7
-3.3274004 -15.222204 -0.27197829 7
-3.4470942 -15.257055 -0.27302545 7
-3.5610776 -15.26371 -0.27358392 7
-3.6800022 -15.288958 -0.27449146 7
-3.7984912 -15.309403 -0.27532917 7
-3.9174461 -15.328938 -0.27616689 7
-4.0348253 -15.339818 -0.27686498 7
-4.1546373 -15.357527 -0.27770269 7
-4.2738228 -15.370453 -0.27847061 7
-4.3955889 -15.390153 -0.27937812 7
-4.5234656 -15.428088 -0.2806347 7
-4.6417193 -15.430515 -0.28126299 7
-4.7625856 -15.439684 -0.28203088 7
-4.8683567 -15.452791 -0.2827988 7
-4.9997468 -15.490649 -0.28412518 7
-5.1256285 -15.508434 -0.28510252 7
-3.0013845 -8.8431168 -0.16300547 5
-3.065836 -8.8294468 -0.1631451 8
-3.105412 -8.7731915 -0.16244701 8
-3.2021303 -8.8490181 -0.16426206 5
-3.0781147 -8.3237362 -0.15490755 5
-3.1405451 -8.3132095 -0.15511699 11
-3.2065778 -8.3115454 -0.15550095 11
-3.2778702 -8.3223858 -0.15612923 11
-3.3367918 -8.3010921 -0.15616414 8
-3.1899445 -7.7779937 -0.14673984 5
-3.2582028 -7.7886796 -0.14736812 7
-3.3283355 -7.8024683 -0.14806622 5
-3.3972254 -7.8119874 -0.1486945 5
-3.3707969 -7.6051984 -0.14520402 5
-3.2725062 -7.2460847 -0.13878153 7
-3.3315063 -7.2411666 -0.13913058 7
-3.3973854 -7.2502623 -0.13975887 7
-3.4721658 -7.2768369 -0.14073621 7
-3.5352509 -7.2775354 -0.14122488 7
-3.3308425 -6.7363596 -0.13117228 7
-3.3815105 -6.7200236 -0.13131191 7
-3.4448714 -6.7282281 -0.13194019 7
-2.9690254 -5.7001305 -0.11218407 4
-3.3993695 -6.204741 -0.12349322 6
-3.3006682 -5.829401 -0.11693113 48
-3.3408961 -5.7255502 -0.11570945 8
-3.3472366 -5.6452618 -0.11455759 8
-3.3557146 -5.5703063 -0.11351045 8
-3.3664398 -5.500628 -0.11256802 8
-3.3848019 -5.4446611 -0.11190483 8
-3.3940053 -5.3751817 -0.1109624 8
-3.4067209 -5.3125758 -0.11015959 8
-3.4121802 -5.2400026 -0.10914735 8
-3.418998 -5.1709518 -0.10820492 8
-3.4328196 -5.1136866 -0.10750683 8
-3.4505126 -5.0630927 -0.10694835 8
-3.4506013 -4.9878349 -0.1058663 8
-3.4624479 -4.9308286 -0.1051682 8
-3.4690242 -4.8673882 -0.10433049 8
-3.4866033 -4.8203025 -0.10384182 8
-3.501327 -4.7699857 -0.10328334 8
-3.5131292 -4.7164931 -0.10265505 8
-3.5110922 -4.6455221 -0.10164282 8
-3.521621 -4.592268 -0.10101453 8
-3.5401728 -4.5501437 -0.10063057 8
-3.5496354 -4.4969978 -0.10000229 8
-3.5535288 -4.4376998 -0.09923438 8
-3.5580282 -4.3801217 -0.098501384 8
-3.5695269 -4.3319597 -0.09797781 10
-3.5779617 -4.2807832 -0.09738443 8
-3.5884423 -4.2327533 -0.096860856 8
-3.5864267 -4.1792784 -0.096127853 8
-3.6024649 -4.1389875 -0.095778808 8
-3.6009116 -4.0791883 -0.094975993 8
-3.6133714 -4.0360041 -0.094557136 10
-3.6227155 -3.9898851 -0.094068468 8
-3.6315918 -3.9438343 -0.093579806 10
-3.6386368 -3.896394 -0.093056232 8
-3.643822 -3.8475974 -0.092497751 8
-3.6595843 -3.8104587 -0.092218518 8
-3.6638441 -3.7618277 -0.091660038 10
-3.670414 -3.7161708 -0.091171369 10
-3.6722798 -3.6663685 -0.09057799 10
-3.6579545 -3.6012912 -0.089600652 8
-3.6916823 -3.5839548 -0.089810081 10
-3.7065678 -3.5483456 -0.089565746 8
-3.7124114 -3.504468 -0.089111984 8
-3.7090411 -3.4525084 -0.088448793 8
-3.7213318 -3.4156432 -0.08816956 10
-3.7318063 -3.3774338 -0.087855414 10
-3.7389448 -3.3365829 -0.087471463 10
-3.7426922 -3.2931561 -0.0870177 10
-3.7414846 -3.2459102 -0.086459219 10
-3.7458787 -3.2040427 -0.086040363 10
-3.7604532 -3.1776378 -0.085935652 8
-3.7687769 -3.1397176 -0.085621506 8
-3.7690279 -3.0954912 -0.085132837 10
-3.7688456 -3.0514159 -0.084644169 10
-3.7822983 -3.0187223 -0.084469646 10
-3.7876203 -2.9798081 -0.084120601 10
-3.7989044 -2.9458697 -0.083911173 10
-3.8003669 -2.9046335 -0.083492309 10
-3.8046336 -2.8659284 -0.083143264 10
-3.8149681 -2.8320744 -0.082933836 10
-3.8137178 -2.7899516 -0.082480073 10
-3.813688 -2.749155 -0.082061216 10
-3.8328385 -2.7223921 -0.082061216 10
-3.8370559 -2.6851771 -0.08174707 10
-3.8360016 -2.6446316 -0.081328213 12
-3.8494573 -2.6143446 -0.081223503 12
-3.8626769 -2.5839989 -0.081118785 12
-3.8522832 -2.5381935 -0.080525406 10
-3.869956 -2.5111656 -0.080525406 12
-3.8697975 -2.478195 -0.080211259 12
-3.8802838 -2.4467795 -0.080071643 12
-3.8922193 -2.4163935 -0.079966925 10
-3.8970947 -2.3817894 -0.079722591 12
-3.8485579 -2.3152795 -0.078396209 8
-3.8595085 -2.2852266 -0.078291498 10
-3.909966 -2.2782893 -0.078989595 12
-3.9240832 -2.2498693 -0.078954689 12
-3.9153523 -2.2085915 -0.078466021 12
-3.9219737 -2.1762788 -0.078291498 12
-3.9300902 -2.1449399 -0.078151874 12
-3.9361987 -2.1126485 -0.077977352 12
-3.9544277 -2.0869102 -0.078047164 12
-3.9529638 -2.05089 -0.077733018 14
-3.9476275 -2.013176 -0.077349067 12
-3.9562597 -1.9828056 -0.077244349 14
-3.9610724 -1.9506463 -0.077069826 12
-3.97823 -1.9246129 -0.077139638 14
-3.9392264 -1.8718293 -0.076127395 10
-3.9848506 -1.8594295 -0.07675568 16
-3.986861 -1.826493 -0.076546252 12
-3.988606 -1.7936196 -0.076336823 12
-4.0011244 -1.770465 -0.076371729 12
-4.0024137 -1.737636 -0.076162301 14
-4.0034404 -1.7048757 -0.075952873 12
-4.0134311 -1.6760396 -0.075917967 12
-4.0195131 -1.6456317 -0.075813256 12
-4.0327897 -1.6181997 -0.075848155 12
-4.0235467 -1.5818824 -0.075464204 12
-4.028923 -1.5515231 -0.075359493 12
-4.0340714 -1.5211662 -0.075254776 12
-4.0464969 -1.4935831 -0.075289682 12
-4.0493298 -1.4625041 -0.075150065 12
-3.9123993 -1.3821671 -0.072427489 10
-4.0259347 -1.3906555 -0.07434725 14
-4.0602007 -1.3707556 -0.074801013 12
-4.0715957 -1.3429272 -0.074835919 12
-4.0789928 -1.3137803 -0.074801013 12
-4.0766435 -1.281597 -0.074591585 12
-4.0874262 -1.2536157 -0.07462649 12
-4.090354 -1.2232544 -0.074521773 12
-4.0911369 -1.1923541 -0.074382156 12
-4.1059103 -1.1699779 -0.074521773 14
-4.0985837 -1.1369319 -0.07424254 12
-4.0871358 -1.103004 -0.073893487 12
-4.0986247 -1.0753822 -0.073963299 14
-4.0944257 -1.0437021 -0.073753871 12
-3.9249876 -0.97130239 -0.070577532 12
-4.1300249 -0.99141419 -0.074137822 16
-4.1251774 -0.95976108 -0.073928393 14
-4.1317945 -0.93086159 -0.073928393 14
-4.1343017 -0.90106481 -0.073858581 14
-4.146378 -0.8733393 -0.073963299 16
-4.1445518 -0.84269971 -0.073823676 16
-4.1405373 -0.81174386 -0.073649153 14
-4.1559429 -0.78459531 -0.073823676 16
-4.1613331 -0.7554847 -0.073823676 16
-4.1783395 -0.72839767 -0.074033111 14
-4.1715016 -0.69715393 -0.073823676 16
-4.164432 -0.66604173 -0.073614247 16
-4.1867828 -0.63959241 -0.073928393 56
-4.0526395 -0.59010005 -0.071485057 22
-4.1616197 -0.54658777 -0.073265202 66
-4.3578348 -0.54135561 -0.07665097 46
-4.3853507 -0.5136292 -0.077069826 54
-4.3888388 -0.48291939 -0.077069826 46
-4.4120035 -0.45423388 -0.077418879 54
-4.4066877 -0.42698243 -0.077279255 54
-4.4055853 -0.39576757 -0.077209443 54
-4.4102407 -0.36508399 -0.077244349 52
-4.4126883 -0.33420363 -0.077244349 52
-4.4308796 -0.30440333 -0.077523589 50
-4.4209261 -0.27264145 -0.077314161 50
-4.0034161 -0.21877448 -0.069984153 24
-4.4462814 -0.21177025 -0.077698112 52
-4.4456573 -0.1805602 -0.077663206 50
-4.4608021 -0.14990658 -0.07790754 48
-4.4577441 -0.11857119 -0.077837735 48
-4.460464 -0.087403513 -0.077872634 50
-4.4689651 -0.0562791 -0.078012258 44
-4.4812474 -0.025062324 -0.078221686 42
-4.4933109 0.0063236495 -0.078431115 44
-4.4931569 0.037776414 -0.078431115 42
-4.4907827 0.069196522 -0.078396209 40
-4.5001845 0.10085407 -0.078570731 42
-4.503366 0.13247022 -0.078640543 42
-4.5223117 0.16471817 -0.078989595 36
-4.5150547 0.19610973 -0.078884877 38
-4.5135713 0.22771004 -0.078884877 38
-4.5181131 0.25512543 -0.078989595 36
-4.5241995 0.28725255 -0.079129212 38
-4.5400305 0.32018074 -0.07944335 46
-4.5336905 0.35164359 -0.079373546 40
-4.5390882 0.38404489 -0.079513162 38
-4.5442543 0.41653898 -0.079652786 40
-4.5531673 0.4495171 -0.079862215 38
-4.5578637 0.48221955 -0.080001831 40
-4.5603375 0.51478547 -0.080106549 38
-4.5566225 0.54669493 -0.080106549 44
-4.5685539 0.58059448 -0.080385782 42
-4.5742874 0.61388975 -0.080560312 38
-4.5876985 0.64841312 -0.080874451 42
-4.592937 0.68197942 -0.081048973 40
